ply
format ascii 1.0
element vertex 713
property float x
property float y
property float z
end_header
-0.0434699989855289459 0.0796360000967979431 0.0356030017137527466
-0.0474749989807605743 0.0818729996681213379 0.0372119992971420288
-0.0462430007755756378 0.0826560035347938538 0.0362120009958744049
-0.0434579998254776001 0.0824529975652694702 0.0354630015790462494
-0.0404650010168552399 0.0824899971485137939 0.035985998809337616
-0.0404589995741844177 0.0853049978613853455 0.0358229987323284149
-0.0381180010735988617 0.0851399973034858704 0.0367249995470046997
-0.0376419983804225922 0.0883089974522590637 0.0364819988608360291
-0.0364499986171722412 0.0875089988112449646 0.0370530001819133759
-0.0354549996554851532 0.0889130011200904846 0.0369450002908706665
-0.0346609987318515778 0.091142997145652771 0.0365080013871192932
-0.0334540009498596191 0.0903370007872581482 0.0371939986944198608
-0.0314650014042854309 0.0917180031538009644 0.0367729999125003815
-0.0314650014042854309 0.0944800004363059998 0.0355370007455348969
-0.0285999998450279236 0.0940959975123405457 0.0360610000789165497
-0.0282639991492033005 0.0967039987444877625 0.0349310003221035004
-0.0259600002318620682 0.0972929969429969788 0.0353580005466938019
-0.0234629996120929718 0.0973180010914802551 0.0357900001108646393
-0.0234650000929832458 0.100073002278804779 0.0344949997961521149
-0.0204620007425546646 0.10077899694442749 0.0345989987254142761
-0.0234719999134540558 0.101457998156547546 0.0337180010974407196
-0.0204649996012449265 0.103542998433113098 0.0332520008087158203
-0.0177110005170106888 0.103912003338336945 0.0336689986288547516
-0.0169549994170665741 0.10288500040769577 0.0343560017645359039
0.00593499979004263878 0.118922002613544464 0.024112999439239502
0.00613299990072846413 0.11718200147151947 0.0262850001454353333
-0.0144600002095103264 0.10635799914598465 0.0330680012702941895
-0.0117030004039406776 0.106723003089427948 0.0335830003023147583
-0.00242100004106760025 0.114820003509521484 0.0291029997169971466
0.012070000171661377 0.120080001652240753 0.0207010004669427872
0.0132299996912479401 0.118754997849464417 0.0220570005476474762
0.00353399990126490593 0.115332998335361481 0.0277350004762411118
0.000468000012915581465 0.115797996520996094 0.0275999996811151505
0.015025000087916851 0.120107002556324005 0.0176979992538690567
-0.00246399990282952785 0.112609997391700745 0.0309510007500648499
-0.00545699987560510635 0.112594000995159149 0.030727999284863472
0.00025400001322850585 0.114211998879909515 0.0292300004512071609
-0.00796699989587068558 0.111241996288299561 0.0312370005995035172
-0.00545499986037611961 0.111222997307777405 0.0317750014364719391
0.00349500006996095181 0.117233000695705414 0.0262439996004104614
0.00938900001347064972 0.118510998785495758 0.0239499993622303009
-0.0114569999277591705 0.109140001237392426 0.0322289988398551941
-0.00845899991691112518 0.109150998294353485 0.0326130017638206482
0.00792100001126527786 0.119548000395298004 0.0229969993233680725
0.0141970003023743629 0.119857996702194214 0.0195439998060464859
0.0162770003080368042 0.118836000561714172 0.0188800003379583359
0.0319619998335838318 0.131934002041816711 0.0157510004937648773
0.0295950006693601608 0.132355004549026489 0.0188599992543458939
0.0321809984743595123 0.132029995322227478 0.0124469995498657227
0.0345750004053115845 0.13045799732208252 0.0133379995822906494
0.0307909995317459106 0.132754996418952942 0.0140709998086094856
0.0286100003868341446 0.132952004671096802 0.0180539991706609726
0.0410699993371963501 0.122536003589630127 -0.00469599990174174309
0.0398720018565654755 0.123980998992919922 -0.00405800016596913338
0.0401129983365535736 0.124583996832370758 -0.00156500004231929779
0.0383220016956329346 0.125788003206253052 -0.0023709998931735754
0.0388889983296394348 0.126141995191574097 0.000452000007499009371
0.037333998829126358 0.127648994326591492 0.00153799995314329863
0.0390300005674362183 0.126664996147155762 0.00359299988485872746
0.0376389995217323303 0.127984002232551575 0.00449799979105591774
0.0358529984951019287 0.12921200692653656 0.00360199995338916779
0.0377900004386901855 0.128057003021240234 0.00705200014635920525
0.0358939990401268005 0.129530996084213257 0.00670599984005093575
0.0345650017261505127 0.130515992641448975 0.00692299986258149147
0.0360109992325305939 0.129492998123168945 0.00959600042551755905
0.0345799997448921204 0.130533993244171143 0.0101810004562139511
0.0393059998750686646 0.123632997274398804 -0.00581899983808398247
0.0400319993495941162 0.121861003339290619 -0.00758100021630525589
0.0415610000491142273 0.120091997087001801 -0.00800400041043758392
0.0350710004568099976 0.105163998901844025 -0.0230550002306699753
0.0381090007722377777 0.107877001166343689 -0.0199570003896951675
0.0401340015232563019 0.107663996517658234 -0.0187289994210004807
0.0407270006835460663 0.119103997945785522 -0.0104620000347495079
0.0415370017290115356 0.114026002585887909 -0.0138440001755952835
0.0319980010390281677 0.0931459963321685791 -0.0284030009061098099
0.035172000527381897 0.0987510010600090027 -0.0252579990774393082
0.0324679985642433167 0.0988589972257614136 -0.0261790007352828979
0.0376980006694793701 0.110509000718593597 -0.0188960004597902298
0.0412510000169277191 0.110740996897220612 -0.0165699999779462814
0.0369599983096122742 0.10621199756860733 -0.0211699996143579483
0.0386090017855167389 0.104951001703739166 -0.0204900000244379044
0.0289050005376338959 0.0928179994225502014 -0.0304249990731477737
0.0319599993526935577 0.0961520001292228699 -0.027526000514626503
0.0345890000462532043 0.101695001125335693 -0.0243870001286268234
0.0360700003802776337 0.101989001035690308 -0.0236889999359846115
0.0403750017285346985 0.11626800149679184 -0.0133459996432065964
0.0289459992200136185 0.0904740020632743835 -0.0309449993073940277
0.0401589982211589813 0.113071002066135406 -0.0156909991055727005
0.0297469999641180038 0.0934080034494400024 -0.0296999998390674591
0.0341669991612434387 0.0947910025715827942 -0.0270729996263980865
0.0375000014901161194 0.104215003550052643 -0.0218359995633363724
0.0393179990351200104 0.111280001699924469 -0.0176010001450777054
0.0419499985873699188 0.116976000368595123 -0.0113380001857876778
0.0312630012631416321 0.098396003246307373 -0.0268770009279251099
0.0396960005164146423 0.118432000279426575 -0.0122469998896121979
0.0291869994252920151 0.087498001754283905 -0.0309289991855621338
-0.0206489991396665573 0.0500410012900829315 -0.0214540008455514908
-0.018163999542593956 0.0528509989380836487 -0.0208369996398687363
-0.0206620004028081894 0.0528349988162517548 -0.0207109991461038589
-0.0126809999346733093 0.0559949986636638641 -0.023603999987244606
-0.0151880001649260521 0.0559349991381168365 -0.0232309997081756592
-0.0174480006098747253 0.056239001452922821 -0.0227940008044242859
-0.0181869994848966599 0.0551000013947486877 -0.0220519993454217911
-0.0206889994442462921 0.0557460002601146698 -0.0212849993258714676
-0.00969399977475404739 0.0582300014793872833 -0.0248629990965127945
-0.0126949995756149292 0.0582230016589164734 -0.0246430002152919769
-0.00668600015342235565 0.0597670003771781921 -0.0256750006228685379
-0.00969600025564432144 0.0597850009799003601 -0.0260760001838207245
-0.0127069996669888496 0.0597070008516311646 -0.0254590008407831192
-0.00389999989420175552 0.062017001211643219 -0.0255149994045495987
-0.00670100003480911255 0.0619210004806518555 -0.0260930005460977554
-0.000911000010091811419 0.06485699862241745 -0.0256549995392560959
-0.0037130001001060009 0.0647590011358261108 -0.0262599997222423553
0.00228099990636110306 0.0675899982452392578 -0.0260910000652074814
-0.000727000006008893251 0.0676330029964447021 -0.0267360005527734756
0.00506599992513656616 0.0705489963293075562 -0.0258680004626512527
0.00227000005543231964 0.0704860016703605652 -0.0268910005688667297
0.00725500006228685379 0.0731960013508796692 -0.0253669992089271545
0.00525900023058056831 0.0732399970293045044 -0.025971999391913414
0.00889999978244304657 0.0757490023970603943 -0.0248530004173517227
0.00756799988448619843 0.0762770026922225952 -0.0256730001419782639
0.0117260003462433815 0.0788220018148422241 -0.024949999526143074
0.0102150002494454384 0.0788720026612281799 -0.0255980007350444794
0.0142240002751350403 0.0815400034189224243 -0.0234929993748664856
0.011719999834895134 0.0816259980201721191 -0.0247460007667541504
0.0164620000869035721 0.0853620022535324097 -0.0226809997111558914
0.014360000379383564 0.0846609994769096375 -0.0235590003430843353
0.0178830008953809738 0.0854210034012794495 -0.0218380000442266464
0.0176899991929531097 0.0884800031781196594 -0.0218429993838071823
0.0162119995802640915 0.0885350033640861511 -0.022588999941945076
-0.0345829986035823822 0.0288590006530284882 -0.0379979982972145081
-0.0293509997427463531 0.0298539996147155762 -0.0369240008294582367
-0.0482789985835552216 0.0289689991623163223 -0.022749999538064003
-0.0492530018091201782 0.0297040008008480072 -0.0198909994214773178
-0.048610001802444458 0.0317759998142719269 -0.0197960007935762405
-0.0350099988281726837 0.0427890010178089142 -0.0204819999635219574
-0.0325249992311000824 0.0447300001978874207 -0.020540999248623848
-0.0522600002586841583 0.0271460004150867462 -0.0200469996780157089
-0.0275769997388124466 0.0332029983401298523 -0.0364749990403652191
-0.0322149991989135742 0.0296000000089406967 -0.037562001496553421
-0.0320050008594989777 0.0275040008127689362 -0.0373379997909069061
-0.0284180007874965668 0.0360249988734722137 -0.0362159982323646545
-0.0493259988725185394 0.0266779996454715729 -0.020210999995470047
-0.0290639996528625488 0.0333129987120628357 -0.036678999662399292
-0.0556060001254081726 0.0267479997128248215 -0.0177359990775585175
-0.0280310008674860001 0.0305739995092153549 -0.036520000547170639
-0.0255740005522966385 0.0330480001866817474 -0.0362549982964992523
-0.0255849994719028473 0.0358849987387657166 -0.0359890013933181763
-0.0255929995328187943 0.0386399999260902405 -0.0348379984498023987
-0.0345890000462532043 0.0442220009863376617 -0.0178640000522136688
-0.0349310003221035004 0.0264640003442764282 -0.0369659997522830963
-0.038215000182390213 0.0265340004116296768 -0.0350480005145072937
-0.0350919999182224274 0.02651200070977211 -0.035165000706911087
-0.0373659990727901459 0.0264529995620250702 -0.0322769992053508759
-0.0407689996063709259 0.0264580007642507553 -0.0320190005004405975
-0.0404479987919330597 0.0265250001102685928 -0.0295000001788139343
-0.0440110005438327789 0.026481999084353447 -0.0294189993292093277
-0.0434990003705024719 0.0265180002897977829 -0.0265609994530677795
-0.04652399942278862 0.0270600002259016037 -0.0262710005044937134
-0.0466420017182826996 0.0265870001167058945 -0.0233580004423856735
-0.0483659990131855011 0.0272940006107091904 -0.023614000529050827
-0.0527409985661506653 0.0264689996838569641 -0.0172799993306398392
-0.0582400001585483551 0.0263480003923177719 -0.014611000195145607
-0.0554369986057281494 0.026322999969124794 -0.0142059996724128723
-0.0614009983837604523 0.026333000510931015 -0.0114019997417926788
-0.0589400008320808411 0.0263080000877380371 -0.0115179996937513351
-0.044165000319480896 0.0607689991593360901 0.00735299987718462944
-0.050439000129699707 0.0664739981293678284 0.0186459999531507492
-0.0499409995973110199 0.0675010010600090027 0.0212040003389120102
-0.0622380003333091736 0.0431549996137619019 0.00441499985754489899
-0.0624109990894794464 0.0433479994535446167 0.00156600004993379116
-0.0532310009002685547 0.0673540011048316956 0.018835999071598053
-0.0614390000700950623 0.0460200011730194092 0.00410499982535839081
-0.0601730011403560638 0.0470889993011951447 0.00490899989381432533
-0.0590800009667873383 0.0489040017127990723 0.00411499990150332451
-0.0579090006649494171 0.0484779998660087585 0.00617100019007921219
-0.0563049986958503723 0.0492199994623661041 0.00697200000286102295
-0.0565520003437995911 0.0509719997644424438 0.0040239999070763588
-0.0548309981822967529 0.0510380007326602936 0.00586100015789270401
-0.0536120012402534485 0.0521310009062290192 0.00462199980393052101
-0.0498250015079975128 0.0534240007400512695 0.00433300016447901726
-0.0477860011160373688 0.0549469999969005585 0.00425799982622265816
-0.0465280003845691681 0.0576959997415542603 0.00424099992960691452
-0.045871000736951828 0.0588559992611408234 0.00519399996846914291
-0.04480699822306633 0.0625199973583221436 0.00743900006636977196
-0.0521019995212554932 0.0532130002975463867 0.00139800005126744509
-0.0513649992644786835 0.0532220005989074707 0.00342099997214972973
-0.0490299984812736511 0.0543339997529983521 0.000892999989446252584
-0.048250000923871994 0.0553480014204978943 0.0016619999660179019
-0.0473270006477832794 0.0576619990170001984 0.0013909999979659915
-0.0461620017886161804 0.0603299997746944427 0.00390599993988871574
-0.0455509983003139496 0.0602849982678890228 0.00540299993008375168
-0.0458539985120296478 0.0623920001089572906 0.00535000022500753403
-0.0567910000681877136 0.0398409999907016754 -0.00777000002562999725
-0.06112699955701828 0.0408460013568401337 -0.00400000018998980522
-0.0557579994201660156 0.0396649986505508423 -0.00476599996909499168
-0.0595109984278678894 0.0400369986891746521 -0.0048119998537003994
-0.0590559989213943481 0.0398049987852573395 -0.00196100003086030483
-0.0616800002753734589 0.0405890010297298431 -0.00185100000817328691
-0.0616430006921291351 0.0406810007989406586 0.0011200000299140811
-0.0472639985382556915 0.0635880008339881897 0.00978100020438432693
-0.0479670017957687378 0.0639809966087341309 0.0124369999393820763
-0.0501330010592937469 0.0646660029888153076 0.0130030000582337379
-0.0509469993412494659 0.0650300011038780212 0.0135930003598332405
-0.047906000167131424 0.0646980032324790955 0.0154130002483725548
-0.0503950007259845734 0.0655789971351623535 0.0160310007631778717
-0.0733549967408180237 0.0592710003256797791 0.0343770012259483337
-0.0734710022807121277 0.0686919987201690674 0.0437359996140003204
-0.0712139979004859924 0.0679659992456436157 0.0441769994795322418
-0.0701399967074394226 0.0690950006246566772 0.0450779981911182404
-0.0724499970674514771 0.0698980018496513367 0.0447200015187263489
-0.0734480023384094238 0.0720539987087249756 0.0452830009162425995
-0.0704360008239746094 0.0721189975738525391 0.0459429994225502014
-0.0704469978809356689 0.0749669969081878662 0.0465859994292259216
-0.0681070014834403992 0.0747769996523857117 0.0471060015261173248
-0.0667700022459030151 0.0752950012683868408 0.047729000449180603
-0.068443000316619873 0.077821001410484314 0.0471680015325546265
-0.0669339969754219055 0.0778639987111091614 0.0477130003273487091
-0.0644439980387687683 0.0779159963130950928 0.0484480001032352448
-0.0644429996609687805 0.0807169973850250244 0.048420000821352005
-0.061448998749256134 0.0807429999113082886 0.0487990006804466248
-0.0614500008523464203 0.0835129991173744202 0.0482200011610984802
-0.0734540000557899475 0.0563459992408752441 0.0282509997487068176
-0.0710749998688697815 0.0560260005295276642 0.0289430003613233566
-0.075433000922203064 0.0613479986786842346 0.0363090001046657562
-0.0761089995503425598 0.0656569972634315491 0.0403430014848709106
-0.0728110000491142273 0.06179799884557724 0.0382249988615512848
-0.0759309977293014526 0.0641309991478919983 0.0390629991888999939
-0.0731720030307769775 0.0664509981870651245 0.0422319993376731873
-0.0734570026397705078 0.0650930032134056091 0.0409599989652633667
-0.0757699981331825256 0.0672099962830543518 0.0417260006070137024
-0.073215000331401825 0.0575289987027645111 0.031086999922990799
-0.0724779963493347168 0.0580589994788169861 0.0327709987759590149
-0.0760039985179901123 0.0625369995832443237 0.037351999431848526
-0.0733070001006126404 0.0606909990310668945 0.0366210006177425385
-0.0730139985680580139 0.0632760003209114075 0.039540998637676239
-0.0743990018963813782 0.0707179978489875793 0.0443620011210441589
-0.0210430007427930832 0.119754001498222351 0.0457919985055923462
-0.0183380004018545151 0.120334997773170471 0.0460820011794567108
-0.0155300004407763481 0.120485998690128326 0.0465309992432594299
-0.0195439998060464859 0.121146999299526215 0.0451069995760917664
-0.0475310012698173523 0.096772998571395874 0.0518690012395381927
-0.0481909997761249542 0.0998020023107528687 0.0514549985527992249
-0.0468450002372264862 0.0993020012974739075 0.0510299988090991974
-0.04451800137758255 0.0994929969310760498 0.0504270009696483612
-0.0415280014276504517 0.0994440019130706787 0.0497479997575283051
-0.0445009991526603699 0.102320000529289246 0.0503919981420040131
-0.0415210016071796417 0.10225600004196167 0.0495180003345012665
-0.0385220013558864594 0.102266997098922729 0.0497500002384185791
-0.038536999374628067 0.105066001415252686 0.0491500012576580048
-0.0355190001428127289 0.105104997754096985 0.0499750003218650818
-0.0355289988219738007 0.107867002487182617 0.0488650016486644745
-0.0324040018022060394 0.108432002365589142 0.0493539981544017792
-0.0335329994559288025 0.109950996935367584 0.0481150001287460327
-0.0295279994606971741 0.111376002430915833 0.0484329983592033386
-0.029535999521613121 0.112763002514839172 0.0476239994168281555
-0.0265200007706880569 0.112758003175258636 0.0480760000646114349
-0.0265379995107650757 0.11485300213098526 0.046895001083612442
-0.0240339990705251694 0.114890001714229584 0.0477680005133152008
-0.0238819997757673264 0.117423996329307556 0.0462489984929561615
-0.0215429998934268951 0.117688998579978943 0.0468580015003681183
0.00346500007435679436 0.118946999311447144 0.0243009999394416809
0.00947200041264295578 0.120582997798919678 0.0209330003708600998
-0.00896300002932548523 0.115336000919342041 0.0279789995402097702
-0.00212200009264051914 0.118660002946853638 0.0247360002249479294
0.00640199985355138779 0.121200002729892731 0.0206550005823373795
-0.00821099989116191864 0.114307999610900879 0.0289859995245933533
-0.00545600010082125664 0.114632003009319305 0.0291520003229379654
-0.0144699998199939728 0.111884996294975281 0.0297989994287490845
-0.00871200021356344223 0.112256996333599091 0.0305749997496604919
-0.0114550003781914711 0.113926999270915985 0.0288389995694160461
-0.0114569999277591705 0.111882999539375305 0.0304489992558956146
0.000928000023122876883 0.118877001106739044 0.0244859997183084488
0.00328300008550286293 0.119810000061988831 0.0228140000253915787
-0.0142120001837611198 0.108772002160549164 0.0316919982433319092
0.0125360004603862762 0.121023997664451599 0.0179099999368190765
-0.0149809997528791428 0.109825998544692993 0.0308870002627372742
-0.0174759998917579651 0.10907600075006485 0.0303830001503229141
0.000607999972999095917 0.117247998714447021 0.0262150000780820847
-0.00529100000858306885 0.117101997137069702 0.0265599992126226425
0.00962499994784593582 0.121872998774051666 0.0181159991770982742
0.0065230000764131546 0.119969002902507782 0.0225070007145404816
-0.0031010000966489315 0.116107001900672913 0.0278030000627040863
-0.0019970000721514225 0.117129996418952942 0.0263860002160072327
0.000169999999343417585 0.11984899640083313 0.0231229998171329498
0.00744999991729855537 0.122190997004508972 0.01851700060069561
-0.00409100018441677094 0.116346001625061035 0.027517000213265419
0.00622599991038441658 0.12162800133228302 0.0253289993852376938
0.00617399998009204865 0.122332997620105743 0.0223520006984472275
0.00917300023138523102 0.12128099799156189 0.0191740002483129501
0.00422299979254603386 0.123061999678611755 0.0231589991599321365
0.00331999990157783031 0.122784003615379333 0.0258259996771812439
0.00899500027298927307 0.121031001210212708 0.0222420003265142441
0.00257200002670288086 0.123291999101638794 0.0246949996799230576
0.00910300016403198242 0.121409997344017029 0.016297999769449234
0.0109959999099373817 0.120410002768039703 0.0170980002731084824
0.0159959997981786728 0.114289999008178711 0.00172199995722621679
0.0178619995713233948 0.112806998193264008 0.00151700002606958151
0.0175260007381439209 0.112095996737480164 -0.000421000004280358553
0.0172630008310079575 0.114657998085021973 0.00542300008237361908
0.0151669997721910477 0.115942001342773438 0.00451399991288781166
0.0152219999581575394 0.116710998117923737 0.00713599985465407372
0.014007999561727047 0.117844000458717346 0.00825500022619962692
0.0144360000267624855 0.117958001792430878 0.0105410004034638405
0.0120590003207325935 0.119492001831531525 0.0104740001261234283
0.012476000003516674 0.119530998170375824 0.0133729996159672737
0.0108859995380043983 0.120458997786045074 0.0142080001533031464
0.012401999905705452 0.119653999805450439 0.0160499997437000275
0.0181300006806850433 0.107877999544143677 -0.0048320000059902668
0.0175139997154474258 0.109552003443241119 -0.0034469999372959137
0.0121750002726912498 0.0921010002493858337 -0.0182429999113082886
0.0151380002498626709 0.0953980013728141785 -0.0151469996199011803
0.0178529992699623108 0.101274996995925903 -0.0103200003504753113
0.0144769996404647827 0.100856997072696686 -0.0121189998462796211
0.00606200005859136581 0.0835060030221939087 -0.0247389990836381912
0.0182600002735853195 0.110633999109268188 -0.00159899995196610689
0.00905600003898143768 0.0896050035953521729 -0.0198379997164011002
0.0120759997516870499 0.0892919972538948059 -0.018866000697016716
0.00950799975544214249 0.0862419977784156799 -0.0211580004543066025
0.00825100019574165344 0.0881950035691261292 -0.0206489991396665573
0.0177740007638931274 0.106259003281593323 -0.00671599991619586945
0.018176000565290451 0.104765996336936951 -0.00781400036066770554
0.0125000001862645149 0.0954729989171028137 -0.016636999323964119
0.00749500002712011337 0.0847359970211982727 -0.0229880008846521378
0.0167369991540908813 0.100304998457431793 -0.0115259997546672821
0.0139840003103017807 0.0910559967160224915 -0.017651999369263649
0.0151660004630684853 0.10401500016450882 -0.00975800026208162308
0.0178919993340969086 0.103473998606204987 -0.00892699975520372391
0.00941400043666362762 0.0835030004382133484 -0.0225060004740953445
0.0151610001921653748 0.0982030034065246582 -0.0135340001434087753
0.0136850001290440559 0.0975520014762878418 -0.0145789999514818192
0.0063570002093911171 0.0806950032711029053 -0.0256249997764825821
0.00523100001737475395 0.0808990001678466797 -0.0262269992381334305
0.0154170002788305283 0.101833000779151917 -0.0111649995669722557
0.00828499998897314072 0.0831609964370727539 -0.0233660005033016205
0.0105820000171661377 0.0875509977340698242 -0.0199929997324943542
0.0067690000869333744 0.0780230015516281128 -0.0255820006132125854
0.00526899984106421471 0.0780719965696334839 -0.0263160001486539841
-0.0271829999983310699 0.0448610000312328339 -0.0335670001804828644
-0.025119999423623085 0.0414649993181228638 -0.0342569984495639801
-0.017312999814748764 0.0445099994540214539 -0.0390029996633529663
-0.0196499992161989212 0.0446819998323917389 -0.0382600016891956329
-0.0219739992171525955 0.0448210015892982483 -0.0371330007910728455
-0.0232980009168386459 0.0442619994282722473 -0.036148998886346817
-0.0256239995360374451 0.0443580001592636108 -0.0346789993345737457
-0.0166459996253252029 0.045522000640630722 -0.0396680012345314026
-0.0116440001875162125 0.0477919988334178925 -0.0409100018441677094
-0.0146490000188350677 0.0477569997310638428 -0.0407890006899833679
-0.0171569995582103729 0.0477240011096000671 -0.0405809991061687469
-0.0201510004699230194 0.0468759983777999878 -0.0390029996633529663
-0.00865100044757127762 0.0506099984049797058 -0.0408070012927055359
-0.0116520002484321594 0.050647001713514328 -0.0413350015878677368
-0.0144069995731115341 0.0503199994564056396 -0.0418220013380050659
-0.00566199980676174164 0.0535279996693134308 -0.0418069995939731598
-0.00866799987852573395 0.0535309985280036926 -0.0420130006968975067
-0.00267500011250376701 0.0563540011644363403 -0.0416759997606277466
-0.00517799984663724899 0.0563989989459514618 -0.0422959998250007629
-0.00668099988251924515 0.056418001651763916 -0.0426010005176067352
0.000307999987853690982 0.0591479986906051636 -0.0412070006132125854
-0.00267999991774559021 0.0591650009155273438 -0.0415849983692169189
0.00329799996688961983 0.0619099996984004974 -0.0403960011899471283
0.000300999992759898305 0.0619359984993934631 -0.0409220010042190552
0.00627799984067678452 0.0647720023989677429 -0.040741998702287674
0.00328200007788836956 0.0648180022835731506 -0.0415039993822574615
0.00829700008034706116 0.0675510019063949585 -0.0403320007026195526
0.00627900008112192154 0.0676210001111030579 -0.0411980003118515015
0.00977899972349405289 0.0702930018305778503 -0.0391520000994205475
0.00824800040572881699 0.0703710019588470459 -0.040213998407125473
0.012134999968111515 0.0739139989018440247 -0.0379370003938674927
0.00975599978119134903 0.0738110020756721497 -0.0390119999647140503
0.0122469998896121979 0.0772330015897750854 -0.0375760011374950409
-0.0382909998297691345 0.040931999683380127 -0.022430000826716423
-0.029725000262260437 0.0467940010130405426 -0.0229380000382661819
-0.0355959981679916382 0.0537660010159015656 -0.0152639998123049736
-0.0417979992926120758 0.04111500084400177 -0.0179869998246431351
-0.0433739982545375824 0.0421990007162094116 -0.0172259993851184845
-0.0442470014095306396 0.0416230000555515289 -0.0151110002771019936
-0.0442409999668598175 0.0440450012683868408 -0.014790000393986702
-0.0451520010828971863 0.0436040014028549194 -0.0121919997036457062
-0.0457880012691020966 0.0435330010950565338 -0.00979399960488080978
-0.0413080006837844849 0.0435499995946884155 -0.0201609991490840912
-0.0424470007419586182 0.0443300008773803711 -0.0181610006839036942
-0.0430789999663829803 0.0451240018010139465 -0.0159339997917413712
-0.0440649986267089844 0.047047000378370285 -0.0120069999247789383
-0.0450019985437393188 0.0467500016093254089 -0.00914399977773427963
-0.038385000079870224 0.0465760007500648499 -0.0207080002874135971
-0.0410379990935325623 0.0468819998204708099 -0.0179609991610050201
-0.0420860014855861664 0.0473459996283054352 -0.0158019997179508209
-0.0434789992868900299 0.0470440015196800232 -0.0144849997013807297
-0.0455759987235069275 0.0476259998977184296 -0.00609100004658102989
-0.0478149987757205963 0.0495489984750747681 -0.00378899998031556606
-0.0422720015048980713 0.0500149987637996674 -0.0121710002422332764
-0.0427169986069202423 0.0504200011491775513 -0.00942000001668930054
-0.0436859987676143646 0.049453001469373703 -0.00866100005805492401
-0.0441600009799003601 0.0501840002834796906 -0.00613600015640258789
-0.0450970008969306946 0.0502110011875629425 -0.00424699997529387474
-0.0328169986605644226 0.0467859990894794464 -0.02291099913418293
-0.040743999183177948 0.0519860014319419861 -0.0121799996122717857
-0.0411880016326904297 0.0525770001113414764 -0.00896899960935115814
-0.0418570004403591156 0.0530360005795955658 -0.00627399981021881104
-0.0391650013625621796 0.0534209981560707092 -0.0118249999359250069
-0.0400490015745162964 0.0535329990088939667 -0.00933699961751699448
-0.0424819998443126678 0.0535189993679523468 -0.00418899999931454659
-0.0348040014505386353 0.0544349998235702515 -0.01384000014513731
-0.0364249981939792633 0.054372001439332962 -0.0118070002645254135
-0.0380439981818199158 0.0543759986758232117 -0.0093729998916387558
-0.040630001574754715 0.0545959994196891785 -0.00507199997082352638
-0.0416689999401569366 0.0556549988687038422 -0.00396300014108419418
-0.0300789996981620789 0.0547190010547637939 -0.0174770001322031021
-0.0302980002015829086 0.0556510016322135925 -0.0152099998667836189
-0.0321209989488124847 0.0549469999969005585 -0.0151620004326105118
-0.0329839996993541718 0.0554599985480308533 -0.0121889999136328697
-0.0325290001928806305 0.0563960000872612 -0.0091970004141330719
-0.0357090011239051819 0.0552950017154216766 -0.00879700016230344772
-0.0358770005404949188 0.0559069998562335968 -0.0059609999880194664
-0.0386769995093345642 0.0562780015170574188 -0.00436499994248151779
-0.0280060004442930222 0.056597001850605011 -0.0158370006829500198
-0.0304780006408691406 0.0567159987986087799 -0.0122079998254776001
-0.0308929998427629471 0.056758001446723938 -0.0102049997076392174
-0.0263480003923177719 0.0582390017807483673 -0.0176550000905990601
-0.0278869997709989548 0.058605000376701355 -0.0152470003813505173
-0.0288329999893903732 0.0586949996650218964 -0.01221499964594841
-0.0296570006757974625 0.058786001056432724 -0.00921500008553266525
-0.0291310008615255356 0.0615429989993572235 -0.0122360000386834145
-0.0296240001916885376 0.0616029985249042511 -0.00923100020736455917
-0.0306090004742145538 0.0618409998714923859 -0.00644800020381808281
-0.0308209992945194244 0.0644010007381439209 -0.00644699996337294579
-0.0390909984707832336 0.0438660010695457458 -0.0212619993835687637
-0.0356709994375705719 0.0437810011208057404 -0.0228100009262561798
-0.0562309995293617249 0.0438239984214305878 -0.00325100007466971874
-0.0325209982693195343 0.0541950017213821411 -0.0172109995037317276
-0.0279079992324113846 0.054048001766204834 -0.0190689992159605026
-0.0300110001116991043 0.0524079985916614532 -0.0205300003290176392
-0.0593059994280338287 0.0439880006015300751 -0.00206100009381771088
-0.0478690005838871002 0.0471870005130767822 -0.00444199983030557632
-0.0328149981796741486 0.0520570017397403717 -0.0202029999345541
-0.0328380018472671509 0.0504360012710094452 -0.0216639991849660873
-0.0300990007817745209 0.0506649985909461975 -0.0218800008296966553
-0.0537169985473155975 0.0439210012555122375 -0.00412000017240643501
-0.059287000447511673 0.0412460006773471832 -0.00238299998454749584
-0.0615170001983642578 0.0409180000424385071 -0.00224999990314245224
-0.0302510000765323639 0.0492549985647201538 -0.0225690007209777832
-0.0279130004346370697 0.0492729991674423218 -0.0223990008234977722
-0.0359839983284473419 0.0474530011415481567 -0.0218010004609823227
-0.0329769998788833618 0.049052998423576355 -0.0223549995571374893
-0.0386160016059875488 0.0550310015678405762 -0.00620400020852684975
-0.0300919990986585617 0.0538300015032291412 -0.018874000757932663
-0.0565490014851093292 0.0462250001728534698 -0.00232900003902614117
-0.0624839998781681061 0.0409960001707077026 -0.00017499999376013875
-0.0535829998552799225 0.0490829981863498688 -0.00212500011548399925
-0.026833999902009964 0.0526430010795593262 -0.0204949993640184402
-0.0505499988794326782 0.0463480018079280853 -0.00423400010913610458
-0.0388429984450340271 0.0411159992218017578 -0.0209309998899698257
-0.0350870005786418915 0.0469189994037151337 -0.0223309993743896484
-0.0331970006227493286 0.0535649992525577545 -0.0179500002413988113
-0.0534420013427734375 0.0464540012180805206 -0.00346600008197128773
-0.0505390018224716187 0.0435409992933273315 -0.00494100013747811317
-0.0351219996809959412 0.0414509996771812439 -0.0234719999134540558
-0.0530799999833106995 0.0416910015046596527 -0.00494700018316507339
-0.0366530008614063263 0.0447349995374679565 -0.0222120005637407303
-0.0564640015363693237 0.0408330000936985016 -0.00354099995456635952
-0.0268300008028745651 0.0553020015358924866 -0.018001999706029892
-0.0505830012261867523 0.0495259985327720642 -0.00299099995754659176
-0.0446249991655349731 0.0525600016117095947 -0.00362000009045004845
-0.0476009994745254517 0.0524460002779960632 -0.00274899997748434544
-0.0499330013990402222 0.0521200001239776611 -0.00195800000801682472
-0.0246520005166530609 0.055525999516248703 -0.0191629994660615921
-0.0446080006659030914 0.0554109998047351837 -0.00304699991829693317
-0.0356529988348484039 0.0583669990301132202 -0.00352600007317960262
-0.0386539995670318604 0.0583800002932548523 -0.0038159999530762434
-0.0416410006582736969 0.0583669990301132202 -0.00380000006407499313
-0.0326660014688968658 0.0612149983644485474 -0.00338399992324411869
-0.0356650017201900482 0.0612060017883777618 -0.00341999996453523636
-0.0386659987270832062 0.0612340010702610016 -0.00387999997474253178
-0.0328789986670017242 0.063966996967792511 -0.00392099982127547264
-0.0316860005259513855 0.0649079978466033936 -0.00488599995151162148
-0.0415610000491142273 0.0412029996514320374 -0.0202089995145797729
-0.0591479986906051636 0.0405879989266395569 -4.99999987368937582e-05
-0.0621609985828399658 0.0404970012605190277 0.00261599989607930183
-0.0562889985740184784 0.0673120021820068359 0.0158029999583959579
-0.0562870018184185028 0.0684939995408058167 0.0191920008510351181
-0.0590910017490386963 0.0404289998114109039 -0.00752299977466464043
-0.0553199984133243561 0.0674989968538284302 0.0176040008664131165
-0.0623040013015270233 0.0427870005369186401 -0.00163600000087171793
-0.0610830001533031464 0.0453730002045631409 -0.00208200002089142799
-0.0612239986658096313 0.0457829982042312622 0.00113800005055963993
-0.0605849996209144592 0.0466209985315799713 0.000498000008519738913
-0.0590550005435943604 0.0488459989428520203 -0.00153200002387166023
-0.0590599998831748962 0.0489789992570877075 0.000942000013310462236
-0.0602190010249614716 0.0441399998962879181 -0.00421500019729137421
-0.0590570010244846344 0.0463019981980323792 -0.00437999982386827469
-0.0569920018315315247 0.0463179983198642731 -0.00809799972921609879
-0.0600670017302036285 0.0470770001411437988 -0.00260200002230703831
-0.0557200014591217041 0.0482960008084774017 -0.00731700006872415543
-0.0566870011389255524 0.0488669984042644501 -0.00475700013339519501
-0.058437000960111618 0.0482689999043941498 -0.00358500005677342415
-0.0528459995985031128 0.0503449998795986176 -0.00653100013732910156
-0.0533870011568069458 0.0510310009121894836 -0.00454800017178058624
-0.0550169982016086578 0.050615999847650528 -0.00355900009162724018
-0.0564819984138011932 0.0508110001683235168 -0.00157399999443441629
-0.0562839992344379425 0.0515360012650489807 0.0014100000262260437
-0.0504960007965564728 0.05231500044465065 -0.00459400005638599396
-0.0536959990859031677 0.0519630014896392822 -0.00181499996688216925
-0.048730999231338501 0.0528789982199668884 -0.00562300020828843117
-0.050919998437166214 0.0530700013041496277 -0.00210199994035065174
-0.0474530011415481567 0.0548559986054897308 -0.00464399997144937515
-0.0483650006353855133 0.0549630001187324524 -0.00163099996279925108
-0.0466089993715286255 0.057551998645067215 -0.00465499982237815857
-0.0474749989807605743 0.0576560012996196747 -0.00164100003894418478
-0.0470459982752799988 0.0603919997811317444 -0.00165500002913177013
-0.0467850007116794586 0.0603800006210803986 0.00138300005346536636
-0.0476190000772476196 0.0633469969034194946 0.00144200003705918789
-0.0473820008337497711 0.0634230002760887146 0.00415799999609589577
-0.0474780015647411346 0.0638469979166984558 0.00719100004062056541
-0.0587989985942840576 0.0429389998316764832 -0.00819300021976232529
-0.0611589998006820679 0.0424689985811710358 -0.00392499985173344612
-0.0581640005111694336 0.0702489987015724182 0.0208449997007846832
-0.0496530011296272278 0.0646959990262985229 0.00469900015741586685
-0.0505089983344078064 0.0646549984812736511 0.00681099994108080864
-0.0520600005984306335 0.0649050027132034302 0.00807199999690055847
-0.050144001841545105 0.0643609985709190369 0.00985199958086013794
-0.0535870008170604706 0.065321996808052063 0.00990900024771690369
-0.0518219992518424988 0.064699999988079071 0.010103999637067318
-0.0532279983162879944 0.0655630007386207581 0.012906000018119812
-0.0533879995346069336 0.0663179978728294373 0.015805000439286232
-0.0563490018248558044 0.0869529992341995239 0.0391680002212524414
-0.0535419993102550507 0.0873619988560676575 0.0401690006256103516
-0.0535399988293647766 0.0895159989595413208 0.0408260002732276917
-0.0535430014133453369 0.0905859991908073425 0.0410469993948936462
-0.0503449998795986176 0.0900570005178451538 0.0406039990484714508
-0.0555309988558292389 0.0909330025315284729 0.0409310013055801392
-0.0515450015664100647 0.0909240022301673889 0.0409790016710758209
-0.0535390004515647888 0.0930820032954216003 0.0415760017931461334
-0.0505449995398521423 0.0930830016732215881 0.041606999933719635
-0.0475400015711784363 0.0930529981851577759 0.0412320010364055634
-0.0505449995398521423 0.095927998423576355 0.0420029982924461365
-0.0475430004298686981 0.0958980023860931396 0.0417140014469623566
-0.0445460006594657898 0.0958980023860931396 0.0416699983179569244
-0.0475450009107589722 0.0987489968538284302 0.0420200005173683167
-0.0445460006594657898 0.0987040027976036072 0.0414270013570785522
-0.0585360005497932434 0.0820629969239234924 0.0354180000722408295
-0.059069998562335968 0.0728339999914169312 0.0247450005263090134
-0.056216999888420105 0.0726680010557174683 0.0274570006877183914
-0.0593190006911754608 0.0806550011038780212 0.0342249982059001923
-0.0562589988112449646 0.084890998899936676 0.0381209999322891235
-0.0595079995691776276 0.0746209993958473206 0.0276490002870559692
-0.0565420016646385193 0.0715840011835098267 0.0250870008021593094
-0.0590000003576278687 0.0759430006146430969 0.0300350002944469452
-0.0573120005428791046 0.074193999171257019 0.0289799999445676804
-0.0590169988572597504 0.0784680023789405823 0.0328230001032352448
-0.0592450015246868134 0.0771329998970031738 0.0312950015068054199
-0.0563520006835460663 0.0815130025148391724 0.0360700003802776337
-0.0572439990937709808 0.0798730030655860901 0.03465300053358078
-0.056570000946521759 0.0838899984955787659 0.0373760014772415161
-0.056425001472234726 0.0697539970278739929 0.0215959995985031128
-0.0559559985995292664 0.0705789998173713684 0.0236179996281862259
-0.0579769983887672424 0.0736190006136894226 0.0275870002806186676
-0.0255009997636079788 0.106234997510910034 0.0294899996370077133
-0.0229819994419813156 0.10695900022983551 0.0303680002689361572
-0.0228199996054172516 0.108783997595310211 0.0289130005985498428
-0.0204739999026060104 0.109050996601581573 0.029706999659538269
-0.0522160008549690247 0.0850460007786750793 0.0370629988610744476
-0.0529650002717971802 0.0860890001058578491 0.0368320010602474213
-0.0529609993100166321 0.0881970003247261047 0.0367669984698295593
-0.0514589995145797729 0.0882380008697509766 0.0373089984059333801
-0.049963001161813736 0.0882479995489120483 0.0374270007014274597
-0.048438001424074173 0.0882069990038871765 0.0368830002844333649
-0.0494650006294250488 0.091012999415397644 0.0364970006048679352
-0.0464599989354610443 0.0909570008516311646 0.0356820002198219299
-0.04346499964594841 0.0909110009670257568 0.0350840017199516296
-0.0435770004987716675 0.094250999391078949 0.0345630012452602386
-0.0404659993946552277 0.0929799973964691162 0.0342749990522861481
-0.0404670014977455139 0.0950770005583763123 0.0335029996931552887
-0.0424429997801780701 0.0957959964871406555 0.0336429998278617859
-0.0374689996242523193 0.0957700014114379883 0.0334130004048347473
-0.0374719984829425812 0.0978320017457008362 0.0321879982948303223
-0.0344780012965202332 0.0978780016303062439 0.0329289995133876801
-0.0364839993417263031 0.0999180004000663757 0.0312300007790327072
-0.0342760011553764343 0.10049399733543396 0.0316019989550113678
-0.0314729996025562286 0.100663997232913971 0.0320799984037876129
-0.0314709991216659546 0.103390000760555267 0.0300879999995231628
-0.0287289991974830627 0.103767998516559601 0.0302809998393058777
-0.0279859993606805801 0.102766998112201691 0.031279001384973526
-0.0264870002865791321 0.104152001440525055 0.0308219995349645615
-0.000407999992603436112 0.135295003652572632 0.0353090018033981323
0.00832100026309490204 0.137550994753837585 0.0291259996592998505
0.00236700009554624557 0.135245993733406067 0.035333000123500824
-0.00952699966728687286 0.129473000764846802 0.0417230017483234406
-0.0127250002697110176 0.128878995776176453 0.041253998875617981
0.00511100003495812416 0.135499000549316406 0.0348679982125759125
-0.00634999992325901985 0.132679000496864319 0.0382840000092983246
-0.0115210004150867462 0.128078997135162354 0.0426389984786510468
-0.0153249995782971382 0.125839993357658386 0.0430620014667510986
-0.00309000001288950443 0.134238004684448242 0.0370070002973079681
-0.0165340006351470947 0.126640006899833679 0.041994001716375351
-0.00951099954545497894 0.130780994892120361 0.0401949994266033173
-0.00609100004658102989 0.131026998162269592 0.0408789999783039093
0.00680099986493587494 0.136393994092941284 0.0333149991929531097
-0.00303700007498264313 0.133141994476318359 0.0384939983487129211
-0.0175250004976987839 0.125240996479988098 0.0426420010626316071
0.0054290001280605793 0.136956006288528442 0.031961001455783844
0.0107659995555877686 0.136649996042251587 0.0311520006507635117
0.00826799962669610977 0.136853992938995361 0.0316819995641708374
-0.000205999996978789568 0.133936002850532532 0.0375490002334117889
0.00314299995079636574 0.136420994997024536 0.033429998904466629
0.000497000000905245543 0.123815998435020447 0.0251260008662939072
0.000391000008676201105 0.124369002878665924 0.0224649999290704727
0.0061769997701048851 0.122597001492977142 0.0194949992001056671
0.00334999989718198776 0.123750001192092896 0.0195080004632472992
0.00633700005710124969 0.12263999879360199 0.0168040003627538681
0.00313300010748207569 0.123579002916812897 0.0223290007561445236
0.00478000007569789886 0.123322002589702606 0.0155159998685121536
0.015374000184237957 0.113141000270843506 -0.00132599996868520975
0.0141749996691942215 0.114440001547336578 -0.000737999973352998495
0.012385999783873558 0.11681000143289566 0.00176500005181878805
0.0145439999178051949 0.115410998463630676 0.00183500000275671482
0.0114439995959401131 0.117812000215053558 0.00246499991044402122
0.0121809998527169228 0.118229001760482788 0.00466000009328126907
0.0121670002117753029 0.118945002555847168 0.00745900021865963936
0.0105739999562501907 0.11992499977350235 0.0076770000159740448
0.00894999969750642776 0.120848000049591064 0.00789599958807229996
0.00920499954372644424 0.121082998812198639 0.0108369998633861542
0.00919300038367509842 0.121308997273445129 0.0135949999094009399
0.00644800020381808281 0.122630998492240906 0.0136900003999471664
0.0123269995674490929 0.11546500027179718 -0.000844000023789703846
0.0133990002796053886 0.114012002944946289 -0.00227600010111927986
0.00899599958211183548 0.101235002279281616 -0.0135249998420476913
0.00618299981579184532 0.0867829993367195129 -0.0221599992364645004
0.0152730001136660576 0.107440002262592316 -0.00747699989005923271
0.0155520001426339149 0.110246002674102783 -0.0045360000804066658
0.0094680003821849823 0.0921529978513717651 -0.019198000431060791
0.00891199987381696701 0.0950390025973320007 -0.0185310002416372299
0.00304699991829693317 0.0833970010280609131 -0.0268849991261959076
0.0122119998559355736 0.113357000052928925 -0.00422600004822015762
0.0144180003553628922 0.111956998705863953 -0.00405600015074014664
0.0143109997734427452 0.109581001102924347 -0.00669900001958012581
0.00617599999532103539 0.0919400006532669067 -0.0196310002356767654
0.00873600039631128311 0.0983640030026435852 -0.0156929995864629745
0.0121389999985694885 0.107202000916004181 -0.00993399973958730698
0.00322000007145106792 0.086612999439239502 -0.0247329995036125183
0.00706599978730082512 0.0897580012679100037 -0.0201949998736381531
0.0057100001722574234 0.0854030027985572815 -0.0236980002373456955
0.005644999910145998 0.0890929996967315674 -0.0208110008388757706
0.0120479995384812355 0.101104997098445892 -0.0126350000500679016
0.00796400010585784912 0.0967869982123374939 -0.0177640002220869064
0.0117699997499585152 0.0989490002393722534 -0.0140730002894997597
0.0115679996088147163 0.0975660011172294617 -0.0153940003365278244
0.00315600004978477955 0.0894720032811164856 -0.0217579994350671768
0.00606099981814622879 0.0947939977049827576 -0.0190229993313550949
0.0143280001357197762 0.106302998960018158 -0.00896199978888034821
0.0112610002979636192 0.10352800041437149 -0.0119780004024505615
0.0111929997801780701 0.094867996871471405 -0.0177069995552301407
0.012493000365793705 0.104547001421451569 -0.010875999927520752
0.00979600008577108383 0.0992219969630241394 -0.014360000379383564
0.00325200008228421211 0.0809689983725547791 -0.0272710006684064865
-0.0239679999649524689 0.0612599998712539673 -0.0210360009223222733
-0.0264229997992515564 0.0612640008330345154 -0.0182520002126693726
-0.0231890007853507996 0.064145997166633606 -0.023289000615477562
-0.0247920006513595581 0.0639249980449676514 -0.0217630006372928619
-0.0257559996098279953 0.0642480030655860901 -0.0206000003963708878
-0.026833999902009964 0.0641229972243309021 -0.0182610005140304565
-0.0174649991095066071 0.0621899999678134918 -0.0256530009210109711
-0.0207170005887746811 0.0616319999098777771 -0.0235629994422197342
-0.0227109994739294052 0.0622459985315799713 -0.0225329995155334473
-0.0153980003669857979 0.0645940005779266357 -0.0276069995015859604
-0.0177389997988939285 0.0647469982504844666 -0.026823999360203743
-0.0200769994407892227 0.0648759976029396057 -0.0257419999688863754
-0.0213810000568628311 0.064328998327255249 -0.0246849991381168365
-0.0132259996607899666 0.0655919983983039856 -0.0282390005886554718
-0.0147329997271299362 0.0655750036239624023 -0.0282099992036819458
-0.00949900038540363312 0.0673440024256706238 -0.0278319995850324631
-0.012232000008225441 0.0677710026502609253 -0.0289520006626844406
-0.0102340001612901688 0.0684669986367225647 -0.0286010000854730606
-0.00674499990418553352 0.070580996572971344 -0.0284759998321533203
-0.00974600017070770264 0.0706129968166351318 -0.0289789997041225433
-0.00375099992379546165 0.0733510032296180725 -0.0278149992227554321
-0.00675499998033046722 0.0733880028128623962 -0.028378000482916832
-0.000768999976571649313 0.0761500000953674316 -0.0274250004440546036
-0.00276799988932907581 0.0754830017685890198 -0.0279319994151592255
-0.00396999996155500412 0.076380997896194458 -0.0286580007523298264
0.00241900002583861351 0.0788590013980865479 -0.0276619996875524521
-0.000270999997155740857 0.0782990008592605591 -0.0279949996620416641
-0.0010250000050291419 0.0793889984488487244 -0.0284219998866319656
0.00121599994599819183 0.0797429978847503662 -0.0282240007072687149
0.00520699983462691307 0.0818319991230964661 -0.0276609994471073151
0.0032140000257641077 0.0811399966478347778 -0.0279980003833770752
0.00200200011022388935 0.0820169970393180847 -0.028371000662446022
0.00820299983024597168 0.0846019983291625977 -0.0268779993057250977
0.00519399996846914291 0.0846399962902069092 -0.0275139994919300079
0.0102000003680586815 0.0880250036716461182 -0.0254379995167255402
0.0081989997997879982 0.0873970016837120056 -0.0265360008925199509
0.00817700009793043137 0.0908640027046203613 -0.0258990004658699036
0.0111849997192621231 0.0914719998836517334 -0.0244169998914003372
0.0111640002578496933 0.094300001859664917 -0.0243820007890462875
-0.0403999984264373779 0.0383840017020702362 -0.0293019991368055344
-0.0415589995682239532 0.0334100015461444855 -0.0334430001676082611
-0.0643030032515525818 0.0358299985527992249 -0.0118760000914335251
-0.0393150001764297485 0.0346300005912780762 -0.0344909988343715668
-0.0405320003628730774 0.0353090018033981323 -0.0322570018470287323
-0.0432009994983673096 0.0355920009315013885 -0.0292620006948709488
-0.0623070001602172852 0.0366090014576911926 -0.0119960000738501549
-0.0374940000474452972 0.0357579998672008514 -0.0349990017712116241
-0.0391750000417232513 0.0360359996557235718 -0.033477000892162323
-0.0411880016326904297 0.0362330004572868347 -0.0304610002785921097
-0.0582199990749359131 0.0390819981694221497 -0.0117870001122355461
-0.0605709999799728394 0.0378100015223026276 -0.0115719996392726898
-0.0378139987587928772 0.0382689982652664185 -0.0320690013468265533
-0.0392140001058578491 0.0375160016119480133 -0.0315209999680519104
-0.055514998733997345 0.0381899997591972351 -0.0142850000411272049
-0.0546329990029335022 0.0407489985227584839 -0.013677000068128109
-0.0559570007026195526 0.0415510013699531555 -0.0122039997950196266
-0.0572010017931461334 0.0412230007350444794 -0.010858999565243721
-0.0543249994516372681 0.0431089997291564941 -0.0133870001882314682
